ply
format ascii 1.0
element vertex 1590
property float32 x
property float32 y
property float32 z
property float32 I
end_header
0.7836 5.2670 -0.7273 0.9787
-6.2575 4.7023 -1.0691 0.9689
-13.0069 -5.9592 -1.9542 0.9439
-0.9060 -13.4766 -1.8449 0.9469
12.6321 -7.9880 -2.0414 0.9414
8.5265 4.7712 -1.3345 0.9613
-8.9518 4.6983 -1.3809 0.9600
-2.3509 13.3329 -1.8492 0.9468
-13.5252 4.5155 -1.9476 0.9441
14.5905 -3.5963 -2.0525 0.9411
4.3955 4.8293 -0.8919 0.9740
-1.8077 5.1823 -0.7497 0.9781
-14.0937 2.2905 -1.9503 0.9440
5.5285 -12.5076 -1.8678 0.9463
14.9888 -1.2101 -2.0539 0.9411
-3.7678 4.8763 -0.9114 0.9754
8.2583 -9.0734 -1.8145 0.9516
1.3329 5.1114 -0.7812 0.9789
-5.1083 4.7765 -1.0343 0.9721
-12.5439 -4.1878 -1.9558 0.9479
-1.7225 -9.7688 -1.4670 0.9607
10.3351 -8.2096 -1.9520 0.9480
-7.1061 4.7654 -1.2654 0.9660
7.5041 4.7453 -1.3131 0.9647
-0.3439 5.1155 -0.7583 0.9795
1.8453 -12.4043 -1.8547 0.9506
13.0056 -4.7336 -2.0469 0.9456
-12.7459 3.5071 -1.9551 0.9479
-9.2165 -9.5954 -1.9677 0.9476
13.6108 -2.5888 -2.0490 0.9455
3.9348 4.8193 -0.9201 0.9752
-2.0177 4.9180 -0.7862 0.9787
-13.1341 1.4161 -1.9537 0.9480
5.7207 -11.2648 -1.8685 0.9502
13.8557 -0.3722 -2.0499 0.9455
2.8510 4.9380 -0.8433 0.9772
-5.3023 -11.1744 -1.8292 0.9512
7.4786 -10.2355 -1.8748 0.9500
1.9084 5.0319 -0.7959 0.9785
-12.9119 -2.8171 -1.9545 0.9480
9.0506 -8.9299 -1.8804 0.9499
-5.7284 4.8067 -1.1059 0.9702
-12.3064 -4.8571 -1.9567 0.9479
9.6516 4.7395 -1.5902 0.9575
6.7680 4.8070 -1.2277 0.9670
-10.1743 -8.5373 -1.9643 0.9477
13.2464 -4.0305 -2.0477 0.9456
-1.4328 4.9467 -0.7617 0.9794
-12.9119 2.8170 -1.9545 0.9480
-8.6964 -10.0857 -1.9695 0.9476
3.4594 -9.1217 -1.4428 0.9613
3.5824 4.9030 -0.8980 0.9757
6.3244 -10.9542 -1.8707 0.9501
-3.3574 4.8642 -0.8741 0.9764
7.8298 -9.5899 -1.8310 0.9512
13.6108 2.5888 -2.0490 0.9455
1.6406 5.1431 -0.7984 0.9784
-4.5862 4.7748 -0.9791 0.9736
-12.7459 -3.5071 -1.9551 0.9479
9.5255 -8.4389 -1.8821 0.9498
12.9309 4.7065 -2.0351 0.9459
-6.2571 4.7020 -1.1576 0.9688
-0.8369 -12.4481 -1.8451 0.9508
11.6705 -7.3799 -2.0421 0.9457
-0.1420 10.5811 -1.5650 0.9581
-8.9452 4.6948 -1.4941 0.9600
-11.0140 -7.3861 -1.9613 0.9478
1.1752 -12.4694 -1.8523 0.9506
-0.9009 5.1092 -0.7673 0.9792
-12.5439 4.1879 -1.9558 0.9479
13.4484 -3.3147 -2.0485 0.9455
4.3710 4.8023 -0.9604 0.9741
-13.0414 2.1195 -1.9540 0.9480
-2.6885 4.9597 -0.8343 0.9774
-12.2882 -0.0000 -1.9567 0.9514
-5.4728 -10.0957 -1.8286 0.9546
2.2277 5.0399 -0.8774 0.9779
-3.6893 4.7748 -0.9608 0.9759
-12.1325 -1.9717 -1.9573 0.9514
12.4692 3.0734 -2.0450 0.9493
1.3359 5.1229 -0.8430 0.9788
-1.6365 -9.2813 -1.5007 0.9625
0.4633 4.9152 -0.7861 0.9802
-7.0993 4.7609 -1.3611 0.9660
-10.9080 -5.7250 -1.9616 0.9513
11.1819 -6.2572 -2.0404 0.9494
7.6224 4.8201 -1.4361 0.9641
-10.3410 4.7379 -1.8113 0.9550
1.7135 -11.5178 -1.8542 0.9539
12.0592 -4.3892 -2.0435 0.9493
5.3498 4.7395 -1.1381 0.9715
2.9120 -9.1288 -1.5258 0.9619
-2.0297 4.9470 -0.8515 0.9786
-12.2189 1.3174 -1.9570 0.9514
-7.0303 -10.1851 -1.9707 0.9511
5.3090 -10.4542 -1.8671 0.9536
-4.9282 -10.3859 -1.8306 0.9545
6.9388 -9.4967 -1.8729 0.9535
12.7326 1.7197 -2.0459 0.9493
-4.1401 4.8016 -1.0096 0.9746
-12.0118 -2.6207 -1.9577 0.9514
8.3955 -8.2835 -1.8781 0.9534
-5.6851 4.7704 -1.1817 0.9704
10.4330 -7.4102 -2.0377 0.9495
9.9537 4.8879 -1.7658 0.9561
-8.1052 4.8258 -1.5021 0.9625
0.4677 -11.6072 -1.8498 0.9540
6.7366 4.7847 -1.3158 0.9671
-0.6140 5.0566 -0.8111 0.9796
-11.4216 4.5080 -1.9553 0.9515
2.3320 -11.4228 -1.8564 0.9539
12.2822 -3.7371 -2.0443 0.9493
4.9299 4.8641 -1.1028 0.9723
-12.0118 2.6207 -1.9577 0.9514
-8.0858 -9.3776 -1.9717 0.9511
4.1485 -10.9388 -1.8629 0.9537
3.5507 4.8596 -0.9584 0.9759
-2.3850 5.0265 -0.8859 0.9777
-6.0006 -9.7773 -1.8267 0.9546
5.8688 -10.1650 -1.8690 0.9536
12.8461 0.3449 -2.0463 0.9493
2.5474 5.0161 -0.8958 0.9775
-12.2189 -1.3174 -1.9570 0.9514
-1.4279 -3.4801 -0.5990 0.9849
7.4456 -9.1194 -1.8747 0.9534
-11.8572 -3.2625 -1.9583 0.9514
9.2628 -8.2062 -1.9706 0.9511
12.0460 4.3844 -2.0413 0.9494
0.7547 5.0727 -0.8167 0.9794
-6.2522 4.6983 -1.2453 0.9688
-11.1938 -5.1285 -1.9606 0.9514
8.5400 4.7788 -1.5583 0.9611
-0.0686 5.1119 -0.8141 0.9795
1.0914 -11.5793 -1.8520 0.9540
11.8009 -5.0279 -2.0426 0.9494
6.0613 4.8147 -1.2326 0.9691
-0.9007 5.1085 -0.8260 0.9792
-9.0291 -8.4424 -1.9683 0.9512
2.3785 -9.1211 -1.5010 0.9625
12.4692 -3.0734 -2.0450 0.9493
4.3342 4.7619 -1.0253 0.9743
-7.5777 -9.8072 -1.9735 0.9510
4.7350 -10.7124 -1.8650 0.9537
12.8083 -1.0341 -2.0462 0.9493
-11.4852 -0.0000 -1.9596 0.9545
-5.1112 -9.4288 -1.8299 0.9574
5.9798 -9.1811 -1.8694 0.9565
2.1948 4.9654 -0.9263 0.9782
-11.3394 -1.8428 -1.9601 0.9545
-3.5434 -10.1576 -1.8355 0.9573
7.4816 -8.2199 -1.8964 0.9559
11.6200 2.8641 -2.0419 0.9526
1.3389 5.1345 -0.9053 0.9787
-5.0757 4.7460 -1.1856 0.9722
-1.6365 -9.2813 -1.6080 0.9625
9.3337 -7.4141 -2.0338 0.9528
0.4653 4.9368 -0.8460 0.9801
-10.1935 -5.3500 -1.9642 0.9544
-0.1454 -10.8279 -1.8476 0.9570
-9.2196 -6.9281 -1.9677 0.9543
1.5988 -10.7470 -1.8538 0.9569
11.2386 -4.0905 -2.0406 0.9526
5.4348 4.8148 -1.2388 0.9710
-1.1271 4.8523 -0.8499 0.9800
-8.0064 -8.3355 -1.9720 0.9542
3.3129 -10.3855 -1.8599 0.9567
11.7599 -2.2368 -2.0424 0.9526
3.9397 4.8252 -1.0628 0.9750
-2.0082 4.8947 -0.9027 0.9788
-6.5792 -9.5315 -1.9761 0.9541
4.9514 -9.7501 -1.8658 0.9566
11.9708 -0.3215 -2.0432 0.9526
2.8009 4.8513 -0.9558 0.9775
-2.9944 4.8791 -0.9767 0.9770
-11.4689 -0.6165 -1.9596 0.9545
-4.6023 -9.6992 -1.8317 0.9574
6.4700 -8.8552 -1.8712 0.9565
-11.2265 -2.4493 -1.9605 0.9544
-2.6808 -9.2552 -1.6440 0.9617
11.4461 3.4826 -2.0413 0.9526
1.0207 4.9994 -0.8706 0.9795
-10.6985 -4.2225 -1.9624 0.9544
-1.0488 -8.6372 -1.4845 0.9653
0.4365 -10.8322 -1.8497 0.9570
10.7257 -5.2670 -2.0388 0.9527
6.7054 4.7626 -1.4033 0.9672
-0.6002 4.9434 -0.8496 0.9800
11.4461 -3.4827 -2.0413 0.9526
4.8792 4.8141 -1.1695 0.9726
-1.4293 4.9347 -0.8766 0.9794
-11.2265 2.4493 -1.9605 0.9544
-7.5536 -8.7604 -1.9736 0.9541
3.8697 -10.2036 -1.8619 0.9567
11.8652 -1.6026 -2.0428 0.9526
3.5096 4.8034 -1.0150 0.9761
-11.4689 0.6165 -1.9596 0.9545
11.9708 0.3214 -2.0432 0.9526
2.4601 4.8442 -0.9270 0.9782
-3.2907 4.7674 -0.9884 0.9768
-11.4203 -1.2313 -1.9598 0.9545
-4.0792 -9.9424 -1.8336 0.9573
8.9050 -7.8892 -2.0299 0.9529
11.2386 4.0905 -2.0406 0.9526
-6.2633 4.7066 -1.3367 0.9687
-10.4609 -4.7927 -1.9632 0.9544
-0.7256 -10.7924 -1.8455 0.9571
-9.2051 4.8312 -1.7737 0.9587
-9.5720 -6.4191 -1.9664 0.9543
6.0711 4.8225 -1.3229 0.9690
-0.8443 4.7882 -0.8296 0.9805
-8.4358 -7.8876 -1.9705 0.9542
2.4015 -9.2096 -1.6239 0.9621
-1.7442 5.0001 -0.9035 0.9787
-11.3394 1.8429 -1.9601 0.9545
-7.0786 -9.1611 -1.9753 0.9541
4.4164 -9.9916 -1.8639 0.9566
11.9356 -0.9636 -2.0431 0.9526
-4.8807 -9.0036 -1.8644 0.9592
5.6004 -8.5986 -1.8681 0.9591
2.1505 4.8652 -0.9684 0.9786
-3.6958 4.7831 -1.1004 0.9757
-10.6412 -1.7294 -1.9626 0.9571
7.4611 -8.1975 -2.0179 0.9559
10.8766 2.6808 -2.0393 0.9555
1.3417 5.1451 -0.9680 0.9786
-1.6365 -9.2813 -1.7157 0.9624
8.7388 -6.9416 -2.0317 0.9556
-7.0620 4.7359 -1.5479 0.9660
-9.5646 -5.0199 -1.9664 0.9570
-0.1363 -10.1484 -1.8476 0.9596
9.7565 -5.4596 -2.0353 0.9556
10.5200 -3.8290 -2.0380 0.9555
-1.1325 4.8753 -0.9112 0.9799
-7.5106 -7.8194 -1.9738 0.9569
11.0073 -2.0936 -2.0398 0.9555
3.8895 4.7638 -1.1196 0.9753
-1.9854 4.8392 -0.9522 0.9790
-10.7172 1.1555 -1.9623 0.9571
4.6379 -9.1327 -1.8647 0.9592
11.2045 -0.3010 -2.0405 0.9555
2.8031 4.8551 -1.0206 0.9775
-4.3159 -9.0955 -1.8327 0.9599
6.0592 -8.2929 -1.8697 0.9591
-2.6604 -9.1849 -1.7408 0.9619
10.7139 3.2599 -2.0387 0.9555
1.0179 4.9861 -0.9264 0.9795
-5.7335 4.8110 -1.3625 0.9700
9.6078 4.7180 -1.9486 0.9574
-8.2655 4.9212 -1.7512 0.9616
10.0404 -4.9305 -2.0363 0.9555
-0.5942 4.8941 -0.8975 0.9802
-10.0389 3.9622 -1.9647 0.9571
-8.2938 -6.9593 -1.9710 0.9569
-1.4170 4.8922 -0.9272 0.9795
-7.0855 -8.2175 -1.9753 0.9568
3.5720 4.8887 -1.1022 0.9757
-10.7629 0.5786 -1.9622 0.9571
5.1262 -8.8788 -1.8664 0.9592
2.4678 4.8593 -0.9922 0.9781
6.7062 -8.2137 -1.9303 0.9578
1.5614 4.8948 -0.9353 0.9793
-4.6106 4.8002 -1.2117 0.9733
-10.3991 -2.8613 -1.9635 0.9571
10.5200 3.8289 -2.0380 0.9555
-6.2583 4.7029 -1.4251 0.9687
9.4442 -5.9721 -2.0342 0.9556
8.8428 4.9482 -1.8447 0.9596
-8.9781 4.7121 -1.8459 0.9596
0.9544 -10.1258 -1.8515 0.9595
10.2952 -4.3864 -2.0372 0.9555
-0.8474 4.8059 -0.8884 0.9804
-10.2335 3.4165 -1.9640 0.9571
-7.9138 -7.3995 -1.9723 0.9569
2.4017 -9.2101 -1.7327 0.9620
10.8766 -2.6808 -2.0393 0.9555
4.2985 4.7226 -1.1625 0.9744
-10.1507 0.0000 -1.9643 0.9595
-4.8649 -8.9745 -1.9755 0.9593
10.4969 0.8474 -2.0379 0.9580
-1.1996 -3.4388 -0.7048 0.9853
7.0458 -7.7411 -2.0256 0.9582
10.2200 2.5190 -2.0370 0.9580
1.3419 5.1460 -1.0291 0.9786
0.4695 4.9807 -0.9681 0.9798
-9.0067 -4.7271 -1.9684 0.9594
-0.1282 -9.5469 -1.8477 0.9618
7.5522 4.7757 -1.7292 0.9642
-0.3292 4.8971 -0.9498 0.9802
-9.2434 4.2350 -1.9676 0.9594
-8.1445 -6.1202 -1.9715 0.9593
1.4091 -9.4719 -1.8532 0.9617
9.8853 -3.5980 -2.0358 0.9580
5.3839 4.7697 -1.3919 0.9711
-1.1156 4.8026 -0.9541 0.9801
-9.7933 2.6947 -1.9656 0.9595
2.9187 -9.1497 -1.8585 0.9616
-1.9631 4.7847 -1.0008 0.9791
-10.0933 1.0883 -1.9645 0.9595
4.3606 -8.5867 -1.8637 0.9615
-2.9993 4.8871 -1.1096 0.9769
-10.1364 -0.5449 -1.9644 0.9595
5.9964 -8.2069 -1.9669 0.9594
10.4351 1.4094 -2.0377 0.9580
-4.1032 4.7588 -1.2160 0.9747
-9.9216 -2.1646 -1.9652 0.9595
-2.6435 -9.1263 -1.8387 0.9620
7.4565 -7.3571 -2.0271 0.9582
10.0674 3.0631 -2.0364 0.9580
-5.7271 4.8057 -1.4468 0.9700
-8.7441 -5.2062 -1.9694 0.9594
0.3848 -9.5495 -1.8495 0.9618
1.9173 -9.3918 -1.8550 0.9617
-1.4166 4.8906 -0.9853 0.9795
-9.9215 2.1646 -1.9652 0.9595
3.4088 -8.9883 -1.8603 0.9616
10.4351 -1.4095 -2.0377 0.9580
-10.1363 0.5449 -1.9644 0.9595
4.8195 -8.3476 -1.8653 0.9615
10.5278 0.2827 -2.0380 0.9580
2.4268 4.7787 -1.0372 0.9784
-3.3459 4.8475 -1.1398 0.9763
-3.5999 -8.7741 -1.8353 0.9621
6.5965 -8.0793 -2.0184 0.9584
-9.7933 -2.6946 -1.9656 0.9595
-2.1366 -9.1980 -1.8274 0.9623
7.8460 -6.9510 -2.0285 0.9582
9.8853 3.5980 -2.0358 0.9580
-6.2532 4.6991 -1.5137 0.9686
8.4702 4.7397 -1.8783 0.9612
-8.9401 4.6921 -1.9539 0.9597
-8.4565 -5.6710 -1.9704 0.9594
6.1012 4.8464 -1.5079 0.9688
-7.4508 -6.9667 -1.9740 0.9593
-10.0216 1.6287 -1.9648 0.9595
10.4969 -0.8475 -2.0379 0.9580
-2.6284 4.8487 -1.0673 0.9778
-4.6072 -8.4991 -1.9822 0.9613
5.3406 -8.1996 -2.0064 0.9608
9.8966 0.7989 -2.0358 0.9603
2.1349 4.8299 -1.0827 0.9787
-3.7045 4.7945 -1.2423 0.9756
1.2811 4.9128 -1.0410 0.9795
-5.0877 4.7572 -1.4282 0.9720
7.7452 -6.1524 -2.0281 0.9604
0.4524 4.7999 -0.9885 0.9805
-7.3795 4.9488 -1.8218 0.9644
-8.5083 -4.4655 -1.9702 0.9615
-0.3248 4.8313 -0.9928 0.9804
-8.7321 4.0007 -1.9694 0.9615
-7.6931 -5.7810 -1.9731 0.9615
1.3297 -8.9383 -1.8529 0.9638
5.3586 4.7473 -1.4679 0.9712
-9.2521 2.5458 -1.9675 0.9616
2.7538 -8.6328 -1.8579 0.9637
-1.9694 4.8002 -1.0638 0.9790
-5.4883 -7.9512 -1.9810 0.9613
9.9257 -0.2666 -2.0359 0.9603
2.7410 4.7476 -1.1240 0.9779
-2.9976 4.8843 -1.1750 0.9769
-9.5765 -0.5148 -1.9664 0.9616
5.8060 -7.9463 -2.0179 0.9606
9.8385 1.3288 -2.0356 0.9603
1.8160 4.7884 -1.0500 0.9793
-4.0894 4.7429 -1.2840 0.9748
-9.3733 -2.0450 -1.9671 0.9616
-2.4956 -8.6160 -1.8392 0.9640
9.4921 2.8881 -2.0344 0.9603
1.0022 4.9090 -1.0273 0.9798
-5.7062 4.7881 -1.5273 0.9700
-8.9311 -3.5250 -1.9687 0.9616
-1.0488 -8.6375 -1.7840 0.9651
8.8882 4.3647 -2.0303 0.9604
0.1926 4.7785 -0.9806 0.9807
-7.9041 4.7061 -1.8862 0.9631
-8.2600 -4.9179 -1.9711 0.9615
8.8966 -4.3688 -2.0322 0.9603
6.7603 4.8015 -1.7002 0.9667
-0.5926 4.8806 -1.0081 0.9801
-8.9310 3.5250 -1.9687 0.9616
1.8092 -8.8622 -1.8546 0.9637
-1.4161 4.8889 -1.0436 0.9794
-9.3733 2.0450 -1.9671 0.9616
-6.2998 -7.3063 -1.9781 0.9614
3.2160 -8.4801 -1.8596 0.9636
9.8385 -1.3289 -2.0356 0.9603
3.5317 4.8336 -1.2274 0.9759
-2.3430 4.9380 -1.1207 0.9779
-9.5765 0.5148 -1.9664 0.9616
-5.0575 -8.2407 -1.9825 0.9613
9.9257 0.2665 -2.0359 0.9603
-3.3572 4.8637 -1.2118 0.9762
6.2392 -7.6417 -2.0228 0.9605
1.5254 4.7819 -1.0292 0.9797
-9.2521 -2.5457 -1.9675 0.9616
0.7236 4.8638 -1.0082 0.9801
-0.6039 -8.9827 -1.8460 0.9639
-0.0653 4.8640 -0.9974 0.9803
-8.4927 4.4573 -1.9666 0.9616
-7.9880 -5.3569 -1.9721 0.9615
0.8472 -8.9884 -1.8511 0.9638
9.1219 -3.8865 -2.0330 0.9603
-7.0374 -6.5801 -1.9754 0.9614
2.2844 -8.7603 -1.8563 0.9637
4.3666 4.7975 -1.3301 0.9739
3.6698 -8.3024 -1.8612 0.9636
9.8966 -0.7990 -2.0358 0.9603
3.1014 4.7617 -1.1652 0.9771
-2.6702 4.9259 -1.1489 0.9774
-9.0860 0.0000 -1.9681 0.9635
-4.3671 -8.0561 -1.9850 0.9632
5.0837 -7.8052 -2.0177 0.9626
9.3590 0.7555 -2.0339 0.9623
2.1307 4.8204 -1.1416 0.9787
-1.1878 -3.4049 -0.7811 0.9853
1.2504 4.7948 -1.0734 0.9799
-5.0983 4.7671 -1.5119 0.9718
7.3260 -5.8193 -2.0266 0.9624
8.6270 3.6756 -2.0313 0.9623
0.4528 4.8034 -1.0451 0.9804
-8.0602 -4.2303 -1.9718 0.9634
-0.1145 -8.5293 -1.8477 0.9657
-7.2874 -5.4761 -1.9746 0.9634
1.2585 -8.4595 -1.8526 0.9656
8.8148 -3.2083 -2.0319 0.9623
5.3335 4.7250 -1.5435 0.9713
-8.7655 2.4119 -1.9693 0.9635
-6.3255 -6.5856 -1.9780 0.9633
2.6237 -8.2249 -1.8701 0.9653
-5.1978 -7.5302 -1.9820 0.9632
4.1654 -8.2022 -1.9927 0.9630
9.3865 -0.2521 -2.0340 0.9623
-2.9629 4.8278 -1.2270 0.9771
-9.0731 -0.4877 -1.9682 0.9635
9.3041 1.2567 -2.0337 0.9623
1.8031 4.7543 -1.1014 0.9794
-2.4030 -8.2962 -1.8709 0.9653
6.6521 -6.5634 -2.0242 0.9625
7.6319 -5.4206 -2.0277 0.9624
-7.8248 -4.6588 -1.9726 0.9634
0.3438 -8.5306 -1.8494 0.9657
7.0134 4.9813 -1.8634 0.9654
4.8834 4.8183 -1.4860 0.9723
-1.4156 4.8872 -1.1021 0.9794
-5.9668 -6.9201 -1.9793 0.9633
3.1169 -8.2186 -1.9040 0.9647
3.5010 4.7916 -1.2855 0.9760
-2.3060 4.8599 -1.1652 0.9782
-9.0731 0.4877 -1.9682 0.9635
4.6444 -8.0444 -2.0121 0.9627
9.3865 0.2520 -2.0340 0.9623
2.4356 4.7959 -1.1651 0.9782
-1.3528 -3.2973 -0.7720 0.9855
-1.9233 -8.2798 -1.8413 0.9658
6.9990 -6.2006 -2.0255 0.9625
0.7068 4.7505 -1.0404 0.9805
-8.2724 -3.7901 -1.9710 0.9634
-0.5717 -8.5033 -1.8461 0.9657
7.9158 -5.0056 -2.0287 0.9624
-7.5670 -5.0745 -1.9736 0.9634
0.8018 -8.5074 -1.8510 0.9656
6.0775 4.8276 -1.6813 0.9687
-0.8570 4.8601 -1.0690 0.9800
-8.6255 2.8797 -1.9698 0.9635
-6.6658 -6.2327 -1.9768 0.9633
2.1618 -8.2903 -1.8558 0.9655
9.1127 -2.2461 -2.0330 0.9623
4.3423 4.7708 -1.3974 0.9739
-8.9702 1.4578 -1.9686 0.9635
-5.5905 -7.2353 -1.9806 0.9633
9.3590 -0.7556 -2.0339 0.9623
3.2084 4.9260 -1.2734 0.9762
-2.6600 4.9071 -1.2091 0.9774
-8.6301 -0.0000 -1.9698 0.9652
-4.1462 -7.6486 -1.9858 0.9649
4.8247 -7.4076 -2.0177 0.9644
8.8746 0.7164 -2.0322 0.9641
-1.1852 -3.3976 -0.8213 0.9853
8.6412 2.1299 -2.0313 0.9641
-5.0941 4.7632 -1.5918 0.9718
-8.1925 -2.7351 -1.9713 0.9652
-1.4498 -8.2223 -1.9056 0.9663
0.4563 4.8406 -1.1097 0.9802
-7.0084 4.6999 -1.9260 0.9660
7.4387 4.7040 -2.0088 0.9645
-7.8568 3.5997 -1.9725 0.9652
1.2228 -8.2200 -1.8968 0.9665
-1.1057 4.7604 -1.1154 0.9801
8.7446 -1.6633 -2.0317 0.9641
3.9246 4.8067 -1.4163 0.9749
-8.5811 0.9252 -1.9699 0.9652
8.9007 -0.2391 -2.0322 0.9641
2.7506 4.7642 -1.2556 0.9777
-2.9986 4.8860 -1.3085 0.9768
8.8225 1.1916 -2.0320 0.9641
1.7990 4.7435 -1.1579 0.9794
-8.4348 -1.8403 -1.9705 0.9652
-2.3977 -8.2777 -1.9670 0.9653
1.0054 4.9246 -1.1472 0.9796
7.2380 -5.1409 -2.0263 0.9642
7.9793 3.9183 -2.0290 0.9642
0.1887 4.6820 -1.0695 0.9810
-7.4314 -4.4246 -1.9740 0.9651
0.3314 -8.2234 -1.8785 0.9668
6.6866 4.7492 -1.8720 0.9669
-6.6349 -5.5674 -1.9769 0.9651
1.6775 -8.2168 -1.9141 0.9662
8.5125 -2.5901 -2.0309 0.9642
4.8659 4.8010 -1.5602 0.9723
-1.4077 4.8602 -1.1549 0.9795
-5.6658 -6.5710 -1.9803 0.9650
3.1100 -8.2005 -2.0018 0.9647
4.4169 -7.6504 -2.0163 0.9644
-1.3396 -3.2651 -0.8055 0.9856
8.7447 1.6632 -2.0317 0.9641
1.4891 4.6680 -1.1183 0.9801
-8.3255 -2.2908 -1.9709 0.9652
-1.9128 -8.2347 -1.9296 0.9659
-0.5528 -8.2230 -1.8811 0.9668
-0.0632 4.7089 -1.0749 0.9809
-7.1863 -4.8192 -1.9749 0.9651
0.7750 -8.2222 -1.8850 0.9667
8.1810 -3.4856 -2.0297 0.9642
6.1394 4.8768 -1.7896 0.9683
-8.1924 2.7351 -1.9713 0.9652
-6.3300 -5.9187 -1.9780 0.9651
2.1415 -8.2125 -1.9371 0.9658
8.6412 -2.1299 -2.0313 0.9641
-8.5200 1.3847 -1.9702 0.9652
3.5570 -8.0473 -2.0082 0.9645
8.8746 -0.7165 -2.0322 0.9641
-8.2158 -0.0000 -1.9712 0.9668
8.4357 0.6810 -2.0306 0.9658
2.1298 4.8183 -1.2639 0.9786
-8.1110 -1.3182 -1.9716 0.9668
5.6690 -6.2285 -2.0207 0.9659
8.2141 2.0246 -2.0298 0.9658
1.2537 4.8075 -1.1920 0.9798
-7.7989 -2.6037 -1.9727 0.9667
-1.4392 -8.1620 -1.9885 0.9665
6.6056 -5.2471 -2.0241 0.9659
7.7769 3.3134 -2.0282 0.9658
0.4568 4.8466 -1.1680 0.9802
-6.8213 4.5744 -1.9706 0.9668
-7.2870 -3.8245 -1.9746 0.9667
-0.1102 -8.2066 -1.9692 0.9668
7.3717 -4.1251 -2.0268 0.9658
-0.3287 4.8890 -1.1757 0.9800
7.9460 -2.8921 -2.0288 0.9658
5.7059 5.0550 -1.8290 0.9691
-1.1063 4.7629 -1.1732 0.9801
-5.7170 -5.9520 -1.9802 0.9666
2.5408 -7.9651 -2.0060 0.9662
8.3123 -1.5810 -2.0302 0.9658
3.9642 4.8553 -1.5039 0.9745
-2.0057 4.8886 -1.2678 0.9785
3.8009 -7.4845 -2.0141 0.9661
-8.2042 -0.4410 -1.9713 0.9668
-3.5518 -7.4852 -1.9879 0.9665
4.9625 -6.7918 -2.0182 0.9660
-2.3072 -7.9655 -1.9897 0.9665
8.0918 2.4620 -2.0294 0.9658
-5.8342 4.8955 -1.8273 0.9692
-7.6500 -3.0193 -1.9733 0.9667
-0.9962 -8.2041 -1.9829 0.9666
6.8811 -4.8874 -2.0251 0.9659
7.5853 3.7248 -2.0276 0.9658
-7.0739 4.2118 -1.9753 0.9667
7.5853 -3.7249 -2.0276 0.9658
6.6360 4.7132 -1.9529 0.9671
-0.5831 4.8026 -1.1608 0.9803
-7.6499 3.0193 -1.9733 0.9667
1.6669 -8.1650 -1.9995 0.9663
4.8588 4.7940 -1.6377 0.9723
-1.3837 4.7772 -1.1933 0.9797
-5.3925 -6.2540 -1.9813 0.9666
2.9702 -7.8320 -2.0097 0.9661
8.3863 -1.1327 -2.0304 0.9658
3.5569 4.8681 -1.4466 0.9755
-2.3053 4.8586 -1.2903 0.9781
-4.3277 -7.0515 -1.9851 0.9665
4.2001 -7.2749 -2.0155 0.9660
8.4605 0.2272 -2.0307 0.9658
-3.2841 4.7579 -1.3871 0.9765
-8.1692 -0.8808 -1.9714 0.9668
-1.3334 -3.2500 -0.8429 0.9857
5.3232 -6.5199 -2.0195 0.9660
8.3123 1.5810 -2.0302 0.9658
1.5685 4.9169 -1.2383 0.9790
-4.5356 4.7221 -1.5710 0.9734
-1.8755 -8.0738 -1.9888 0.9665
7.9460 2.8921 -2.0288 0.9658
-0.5517 -8.2059 -1.9733 0.9667
7.1367 -4.5130 -2.0260 0.9659
7.3717 4.1250 -2.0268 0.9658
-0.0643 4.7896 -1.1493 0.9805
-6.8405 -4.5873 -1.9761 0.9667
0.7733 -8.2051 -1.9774 0.9667
6.1024 4.8474 -1.8699 0.9685
-0.8376 4.7501 -1.1573 0.9804
2.1060 -8.0762 -2.0025 0.9663
8.2141 -2.0246 -2.0298 0.9658
4.2942 4.7180 -1.5307 0.9741
-1.6796 4.8149 -1.2235 0.9792
-8.1110 1.3182 -1.9716 0.9668
-5.0521 -6.5384 -1.9825 0.9666
3.2168 4.9388 -1.4142 0.9760
-2.6314 4.8542 -1.3248 0.9775
-7.8376 -0.0000 -1.9726 0.9682
-1.7184 -3.1699 -0.9075 0.9852
8.0362 0.6488 -2.0292 0.9673
2.1654 4.8989 -1.3480 0.9781
-3.7074 4.7982 -1.5261 0.9753
7.8252 1.9287 -2.0284 0.9673
1.2773 4.8981 -1.2740 0.9793
-5.0856 4.7553 -1.7523 0.9717
-7.4396 -2.4837 -1.9740 0.9682
6.2937 -4.9994 -2.0230 0.9674
7.4091 3.1567 -2.0269 0.9673
-6.5177 4.3709 -1.9751 0.9681
-6.9510 -3.6481 -1.9758 0.9681
-0.1065 -7.9342 -1.9971 0.9678
7.0232 -3.9301 -2.0256 0.9673
6.7968 4.2980 -2.0240 0.9674
1.1709 -7.8706 -2.0027 0.9677
7.5700 -2.7552 -2.0275 0.9673
5.5552 4.9215 -1.8679 0.9699
-5.4527 -5.6769 -1.9811 0.9681
2.4261 -7.6054 -2.0092 0.9676
3.8769 4.7483 -1.5428 0.9750
-7.7931 0.8402 -1.9727 0.9682
-4.4793 -6.4893 -1.9846 0.9680
3.6223 -7.1328 -2.0134 0.9675
8.0598 -0.2165 -2.0293 0.9673
2.7491 4.7616 -1.3838 0.9776
4.7288 -6.4721 -2.0174 0.9675
1.8713 4.9341 -1.3281 0.9785
-4.1571 4.8213 -1.6022 0.9741
-7.6599 -1.6712 -1.9732 0.9682
-1.0266 -3.5443 -0.9287 0.9849
5.7157 -5.6395 -2.0209 0.9674
-7.2974 -2.8802 -1.9745 0.9682
-0.9555 -7.8694 -1.9952 0.9678
0.3197 -7.9344 -1.9986 0.9678
6.5344 4.6411 -2.0172 0.9675
-0.6043 4.9772 -1.2619 0.9795
-7.2974 2.8802 -1.9745 0.9682
1.5937 -7.8064 -2.0053 0.9677
7.7088 -2.3456 -2.0280 0.9673
7.9892 -1.0791 -2.0290 0.9673
3.5378 4.8419 -1.5093 0.9756
-2.3062 4.8604 -1.3540 0.9781
4.0026 -6.9328 -2.0148 0.9675
2.4492 4.8228 -1.3614 0.9779
-3.3033 4.7857 -1.4635 0.9763
-7.7931 -0.8402 -1.9727 0.9682
5.0724 -6.2127 -2.0186 0.9675
7.9188 1.5062 -2.0287 0.9673
1.5811 4.9563 -1.3094 0.9788
-7.5605 -2.0803 -1.9736 0.9682
7.5700 2.7552 -2.0275 0.9673
0.7329 4.9263 -1.2535 0.9797
-6.2458 4.6934 -1.9663 0.9683
7.0232 3.9300 -2.0256 0.9673
-6.9509 3.6482 -1.9757 0.9681
-6.5248 -4.3756 -1.9773 0.9681
0.7458 -7.9132 -2.0005 0.9677
5.9424 4.7202 -1.9100 0.9692
-0.8395 4.7608 -1.2167 0.9803
2.0128 -7.7190 -2.0077 0.9676
7.8252 -1.9287 -2.0284 0.9673
-7.7375 1.2575 -1.9729 0.9682
3.2320 -7.3119 -2.0120 0.9676
8.0362 -0.6488 -2.0292 0.9673
-1.7080 -3.1508 -0.9444 0.9853
7.6709 0.6193 -2.0279 0.9687
2.1981 4.9730 -1.4327 0.9778
-1.1812 -3.3861 -0.9450 0.9853
5.1573 -5.6663 -2.0189 0.9688
7.4696 1.8411 -2.0271 0.9687
1.2848 4.9269 -1.3416 0.9792
-5.0730 4.7434 -1.8300 0.9717
6.0085 -4.7728 -2.0219 0.9688
7.0726 3.0133 -2.0257 0.9687
-6.2355 4.1816 -1.9783 0.9694
-0.1019 -7.5901 -2.0002 0.9691
-0.3220 4.7898 -1.2650 0.9803
-6.0045 -4.5121 -1.9791 0.9694
5.3339 4.7254 -1.8777 0.9710
-5.2104 -5.4246 -1.9820 0.9694
7.5589 -1.4377 -2.0275 0.9687
-7.4482 0.8031 -1.9740 0.9695
-4.2799 -6.2005 -1.9853 0.9693
3.4589 -6.8110 -2.0129 0.9689
7.6934 -0.2066 -2.0279 0.9687
2.8118 4.8702 -1.4818 0.9770
-1.5083 -3.1788 -0.9271 0.9856
-4.2109 4.8837 -1.6992 0.9737
-7.3209 -1.5972 -1.9744 0.9695
5.4569 -5.3841 -2.0200 0.9688
1.0073 4.9340 -1.3269 0.9794
-5.6031 4.7015 -1.9273 0.9702
-6.9742 -2.7526 -1.9757 0.9695
-0.9136 -7.5245 -1.9973 0.9691
6.8985 3.3876 -2.0251 0.9687
0.1977 4.9051 -1.2935 0.9799
-6.4485 -3.8393 -1.9775 0.9694
0.3059 -7.5901 -2.0016 0.9691
6.2489 4.4383 -2.0196 0.9688
-5.7563 -4.8301 -1.9800 0.9694
1.5227 -7.4589 -2.0060 0.9690
7.3586 -2.2390 -2.0268 0.9687
-7.3209 1.5972 -1.9744 0.9695
-4.9144 -5.6995 -1.9830 0.9693
2.7052 -7.1330 -2.0102 0.9689
3.5486 4.8568 -1.5850 0.9754
-2.3239 4.8978 -1.4285 0.9778
-3.9433 -6.4252 -1.9865 0.9693
7.6934 0.2066 -2.0279 0.9687
-7.4482 -0.8031 -1.9740 0.9695
7.5589 1.4377 -2.0275 0.9687
-4.8135 5.0114 -1.8310 0.9717
-1.7126 -7.3727 -1.9944 0.9692
5.7409 -5.0860 -2.0210 0.9688
0.7233 4.8614 -1.2951 0.9799
6.4910 -4.1047 -2.0237 0.9687
-6.6429 3.4865 -1.9768 0.9694
-6.2355 -4.1816 -1.9783 0.9694
0.7133 -7.5682 -2.0031 0.9690
7.0726 -3.0134 -2.0257 0.9687
5.9230 4.7048 -1.9932 0.9692
-7.1102 2.3738 -1.9752 0.9695
-1.6767 4.8065 -1.3414 0.9792
-7.3951 1.2018 -1.9742 0.9695
3.0862 -6.9822 -2.0115 0.9689
3.9929 -6.1305 -2.0148 0.9701
2.1581 4.8824 -1.4700 0.9781
-3.6683 4.7475 -1.6522 0.9754
-7.0799 -1.1506 -1.9753 0.9707
-1.1812 -3.3861 -0.9876 0.9852
-5.0348 4.7077 -1.8982 0.9718
6.7637 2.8817 -2.0246 0.9700
0.4637 4.9195 -1.3608 0.9797
-6.3595 -3.3377 -1.9779 0.9706
6.2077 3.9255 -2.0226 0.9700
-6.5275 2.9906 -1.9773 0.9707
5.3174 4.7108 -1.9563 0.9710
-6.9178 1.9035 -1.9759 0.9707
-4.9875 -5.1926 -1.9828 0.9706
2.2164 -6.9482 -2.0084 0.9702
7.2284 -1.3749 -2.0263 0.9699
-1.9488 4.7499 -1.4139 0.9789
-7.1308 0.7688 -1.9751 0.9707
-4.0966 -5.9349 -1.9859 0.9705
3.3087 -6.5153 -2.0123 0.9701
-7.1614 -0.3850 -1.9750 0.9707
-1.7445 -3.6765 -1.1207 0.9833
7.2926 0.9850 -2.0265 0.9699
1.8412 4.8547 -1.4298 0.9787
-4.2530 4.9326 -1.7936 0.9733
-7.0089 -1.5292 -1.9755 0.9707
-1.0027 -3.4618 -0.9925 0.9852
5.2192 -5.1496 -2.0191 0.9700
7.0370 2.1411 -2.0256 0.9699
1.0129 4.9615 -1.3945 0.9792
-5.4932 4.6093 -1.9747 0.9707
-6.6768 -2.6352 -1.9767 0.9707
-0.8743 -7.2002 -1.9974 0.9704
-6.1732 -3.6755 -1.9785 0.9706
6.5973 -3.2397 -2.0240 0.9700
5.9857 4.2514 -2.0219 0.9700
-5.5102 -4.6237 -1.9809 0.9706
1.4568 -7.1361 -2.0057 0.9702
7.0370 -2.1411 -2.0256 0.9699
4.8216 4.7573 -1.8653 0.9723
-1.4046 4.8491 -1.3903 0.9793
7.2926 -0.9850 -2.0265 0.9699
3.4994 4.7895 -1.6335 0.9757
-2.2637 4.7708 -1.4542 0.9783
-3.7743 -6.1498 -1.9871 0.9705
3.6559 -6.3322 -2.0136 0.9701
7.3570 0.1975 -2.0267 0.9699
2.4632 4.8504 -1.4981 0.9777
-3.3549 4.8605 -1.6264 0.9758
7.2284 1.3748 -2.0263 0.9699
-4.6076 4.7970 -1.8317 0.9728
-6.9178 -1.9034 -1.9759 0.9707
-6.5275 -2.9906 -1.9773 0.9707
-0.4869 -7.2418 -1.9988 0.9703
-0.0661 4.9238 -1.3561 0.9798
-6.3595 3.3377 -1.9779 0.9706
0.6825 -7.2412 -2.0030 0.9703
6.7637 -2.8817 -2.0246 0.9700
-0.8343 4.7318 -1.3232 0.9803
7.1431 -1.7606 -2.0260 0.9699
-4.4068 -5.7033 -1.9848 0.9705
-2.6876 4.9580 -1.5531 0.9769
-3.2984 -6.0847 -1.9888 0.9716
3.8256 -5.8736 -2.0142 0.9712
2.1180 4.7917 -1.5054 0.9784
-6.7888 -1.1033 -1.9763 0.9718
-1.1833 -3.3922 -1.0323 0.9852
4.7257 -5.1921 -2.0174 0.9712
1.2846 4.9261 -1.4628 0.9790
-5.0197 4.6935 -1.9747 0.9718
-6.5270 -2.1790 -1.9773 0.9718
5.5050 -4.3728 -2.0201 0.9712
6.4789 2.7604 -2.0236 0.9711
-5.7233 3.8381 -1.9801 0.9717
-0.0935 -6.9603 -2.0002 0.9714
5.9466 3.7604 -2.0217 0.9711
-6.2588 2.8676 -1.9782 0.9718
1.0263 -6.8989 -2.0042 0.9714
5.2425 4.6444 -2.0125 0.9713
-6.6333 1.8252 -1.9769 0.9718
-4.7817 -4.9783 -1.9835 0.9717
2.1238 -6.6579 -2.0081 0.9713
4.0236 4.9280 -1.8281 0.9739
7.0470 -0.1893 -2.0256 0.9711
-6.8670 -0.3691 -1.9760 0.9718
6.9853 0.9435 -2.0254 0.9711
5.0000 -4.9334 -2.0183 0.9712
6.7406 2.0509 -2.0245 0.9711
-5.2749 4.4262 -1.9786 0.9717
-0.8379 -6.9010 -1.9975 0.9715
6.3196 3.1033 -2.0230 0.9711
-5.9190 3.5241 -1.9794 0.9717
-5.9190 -3.5241 -1.9794 0.9717
0.2805 -6.9599 -2.0015 0.9714
6.3196 -3.1034 -2.0231 0.9711
5.7341 4.0727 -2.0210 0.9712
-6.4021 2.5268 -1.9777 0.9718
-5.2831 -4.4330 -1.9817 0.9717
4.7789 4.7151 -1.9291 0.9724
2.4797 -6.5385 -2.0094 0.9713
6.9853 -0.9435 -2.0254 0.9711
7.0470 0.1892 -2.0256 0.9711
2.4330 4.7909 -1.5440 0.9779
-3.3471 4.8491 -1.6931 0.9758
-6.8377 -0.7372 -1.9762 0.9718
-2.6303 -6.4109 -1.9912 0.9716
6.9239 1.3169 -2.0252 0.9711
1.5087 4.7294 -1.4264 0.9796
-4.5261 4.7122 -1.8775 0.9732
-6.6333 -1.8252 -1.9769 0.9718
5.2600 -4.6600 -2.0193 0.9712
-6.0977 3.2003 -1.9788 0.9717
-5.7233 -3.8381 -1.9801 0.9717
0.6541 -6.9395 -2.0029 0.9714
-0.8363 4.7428 -1.3838 0.9802
-6.5270 2.1791 -1.9773 0.9718
-5.0397 -4.7123 -1.9826 0.9717
6.8422 -1.6865 -2.0249 0.9711
-1.6920 4.8506 -1.4762 0.9788
-6.7888 1.1033 -1.9763 0.9718
-4.2247 -5.4677 -1.9855 0.9717
7.0264 -0.5673 -2.0256 0.9711
3.2408 4.9757 -1.7063 0.9756
-2.6626 4.9119 -1.6054 0.9770
-6.6036 0.0000 -1.9770 0.9728
-3.1666 -5.8414 -1.9892 0.9726
6.7405 0.5442 -2.0245 0.9722
2.1304 4.8196 -1.5776 0.9782
-3.7471 4.8496 -1.8348 0.9747
-6.5191 -1.0595 -1.9773 0.9728
-1.1840 -3.3942 -1.0762 0.9851
4.5342 -4.9817 -2.0167 0.9723
-4.8278 4.5141 -1.9787 0.9728
-1.1580 -6.5671 -1.9964 0.9725
6.2156 2.6482 -2.0227 0.9722
0.4578 4.8573 -1.4606 0.9798
5.7051 3.6077 -2.0209 0.9722
-5.2917 -3.9764 -1.9817 0.9727
0.9850 -6.6211 -2.0040 0.9724
6.3503 -2.3113 -2.0232 0.9722
5.0376 4.4629 -2.0149 0.9723
-6.3697 1.7527 -1.9778 0.9728
-4.5911 -4.7798 -1.9842 0.9727
2.0381 -6.3893 -2.0078 0.9724
6.6422 -1.2634 -2.0242 0.9722
3.9338 4.8180 -1.8621 0.9744
-1.9651 4.7897 -1.5499 0.9786
6.7603 -0.1816 -2.0246 0.9722
2.7423 4.7498 -1.6420 0.9774
-3.0327 4.9415 -1.7358 0.9761
-6.5942 -0.3545 -1.9770 0.9728
-1.6976 -3.5775 -1.1855 0.9836
3.9701 -5.4336 -2.0147 0.9723
1.7974 4.7392 -1.5174 0.9791
-4.0657 4.7153 -1.8640 0.9743
-6.4536 -1.4080 -1.9775 0.9728
-0.9882 -3.4116 -1.0634 0.9853
4.7973 -4.7333 -2.0176 0.9723
6.4665 1.9675 -2.0236 0.9722
5.5013 -3.9074 -2.0201 0.9722
6.0628 2.9772 -2.0221 0.9722
-5.6835 3.3839 -1.9803 0.9728
0.2692 -6.6800 -2.0015 0.9725
6.0628 -2.9772 -2.0221 0.9722
5.5013 3.9073 -2.0201 0.9722
-0.5842 4.8118 -1.4511 0.9800
-6.1475 2.4264 -1.9786 0.9728
6.4665 -1.9675 -2.0236 0.9722
4.7648 4.7013 -2.0040 0.9724
3.6447 4.9883 -1.8496 0.9745
-2.3013 4.8500 -1.6072 0.9778
3.3611 -5.8216 -2.0125 0.9723
6.7603 0.1815 -2.0246 0.9722
2.4375 4.7996 -1.6116 0.9778
-3.4832 5.0463 -1.8357 0.9747
-4.5132 4.6987 -1.9505 0.9732
-6.3697 -1.7526 -1.9778 0.9728
-5.2917 3.9765 -1.9817 0.9727
-0.4479 -6.6619 -1.9989 0.9725
5.7052 -3.6077 -2.0209 0.9722
5.8925 3.2973 -2.0215 0.9722
-5.8551 3.0730 -1.9797 0.9728
-5.4955 -3.6853 -1.9809 0.9728
5.2816 4.1954 -2.0193 0.9722
-0.8382 4.7538 -1.4451 0.9800
-6.2675 2.0925 -1.9782 0.9728
-4.8389 -4.5245 -1.9833 0.9727
1.6912 -6.4855 -2.0066 0.9724
4.2943 4.7180 -1.9100 0.9737
-6.5191 1.0595 -1.9773 0.9728
2.7146 -6.1414 -2.0102 0.9724
6.7405 -0.5442 -2.0245 0.9722
3.2144 4.9351 -1.7632 0.9757
-3.0441 -5.6155 -1.9897 0.9736
2.1183 4.7924 -1.6321 0.9783
-3.6448 4.7172 -1.8569 0.9753
-1.1686 -3.3499 -1.1051 0.9852
4.3565 -4.7864 -2.0161 0.9732
1.2608 4.8348 -1.5564 0.9793
-6.0264 -2.0119 -1.9790 0.9737
-1.1130 -6.3122 -1.9966 0.9735
0.4515 4.7901 -1.4987 0.9800
-5.2838 3.5433 -1.9817 0.9737
-0.0862 -6.4208 -2.0002 0.9735
5.6610 -3.1678 -2.0207 0.9732
5.4811 3.4660 -2.0201 0.9732
-5.7786 2.6475 -1.9799 0.9737
-5.0877 -3.8232 -1.9824 0.9737
4.8469 4.2940 -2.0171 0.9732
-6.1246 1.6852 -1.9787 0.9737
-4.4139 -4.5954 -1.9848 0.9737
1.9586 -6.1399 -2.0075 0.9734
-2.0205 4.9246 -1.6581 0.9779
-6.3135 0.6807 -1.9780 0.9737
6.4943 -0.1744 -2.0237 0.9731
2.8189 4.8824 -1.7561 0.9767
-2.7398 -5.7739 -1.9908 0.9736
6.4375 0.8695 -2.0235 0.9732
1.8426 4.8586 -1.6186 0.9785
-0.9834 -3.3950 -1.1010 0.9853
4.6092 -4.5477 -2.0170 0.9732
6.2122 1.8902 -2.0227 0.9732
1.0093 4.9435 -1.5716 0.9791
5.2853 -3.7540 -2.0194 0.9732
0.1917 4.7552 -1.4824 0.9803
-5.4646 3.2536 -1.9810 0.9737
-0.5833 4.8046 -1.5076 0.9799
1.2876 -6.3070 -2.0051 0.9734
6.2122 -1.8902 -2.0227 0.9732
4.5980 4.5367 -2.0121 0.9733
-1.3923 4.8070 -1.5589 0.9793
-6.2053 1.3539 -1.9784 0.9737
-4.1628 -4.8278 -1.9857 0.9736
2.2867 -6.0295 -2.0087 0.9733
6.4375 -0.8695 -2.0235 0.9732
3.5240 4.8231 -1.8607 0.9753
-2.2869 4.8197 -1.6617 0.9779
-1.3534 -3.2987 -1.1107 0.9852
6.3809 1.2137 -2.0233 0.9732
-6.1246 -1.6852 -1.9787 0.9737
6.1006 2.2204 -2.0223 0.9732
0.7199 4.8392 -1.5240 0.9797
-5.7786 -2.6475 -1.9799 0.9737
-5.2838 -3.5433 -1.9817 0.9737
5.0743 4.0307 -2.0186 0.9732
-6.0264 2.0119 -1.9790 0.9737
-4.6522 -4.3499 -1.9839 0.9737
6.3058 -1.5542 -2.0230 0.9732
-6.2683 1.0187 -1.9782 0.9737
2.6085 -5.9014 -2.0098 0.9733
-2.6672 4.9203 -1.7434 0.9768
-2.9300 -5.4050 -1.9901 0.9745
-3.6352 4.7047 -1.9245 0.9753
-1.1589 -3.3222 -1.1389 0.9853
6.0655 1.4950 -2.0221 0.9741
-4.4783 4.1873 -1.9846 0.9746
-1.0712 -6.0748 -1.9967 0.9744
0.4532 4.8078 -1.5631 0.9799
-0.0830 -6.1788 -2.0002 0.9744
5.2726 3.3342 -2.0193 0.9741
0.9109 -6.1229 -2.0038 0.9743
-1.0969 4.7223 -1.5693 0.9798
6.1378 -1.1674 -2.0224 0.9741
3.8431 4.7069 -1.9669 0.9748
-2.0289 4.9452 -1.7302 0.9778
-6.0781 0.6553 -1.9789 0.9746
6.2468 -0.1678 -2.0228 0.9741
-6.1042 -0.3281 -1.9788 0.9746
-1.7009 -3.5846 -1.2843 0.9835
3.6699 -5.0228 -2.0136 0.9742
6.1922 0.8364 -2.0226 0.9741
-3.9938 4.6320 -1.9797 0.9746
-0.9766 -3.3716 -1.1362 0.9854
4.4341 -4.3750 -2.0163 0.9742
5.9756 1.8182 -2.0218 0.9741
-4.6948 3.9394 -1.9838 0.9746
-5.6904 -2.2459 -1.9802 0.9746
-0.7440 -6.1271 -1.9979 0.9744
5.6029 2.7513 -2.0205 0.9741
-5.2605 3.1321 -1.9818 0.9746
-5.2606 -3.1321 -1.9818 0.9746
0.2490 -6.1780 -2.0014 0.9743
5.6029 -2.7514 -2.0205 0.9741
5.0843 3.6112 -2.0186 0.9741
-0.5918 4.8744 -1.5894 0.9796
-4.6948 -3.9394 -1.9838 0.9746
5.9756 -1.8182 -2.0218 0.9741
-5.9740 1.3034 -1.9792 0.9746
-4.0070 -4.6472 -1.9862 0.9745
2.2001 -5.8013 -2.0084 0.9743
3.1073 -5.3819 -2.0116 0.9742
6.2468 0.1677 -2.0228 0.9741
3.9361 -4.8209 -2.0146 0.9742
1.5634 4.9010 -1.6652 0.9786
-5.8962 -1.6223 -1.9795 0.9746
-1.3949 -6.0050 -1.9956 0.9744
5.8683 2.1359 -2.0214 0.9741
0.7125 4.7890 -1.5672 0.9798
-5.5630 -2.5487 -1.9807 0.9746
-0.4143 -6.1618 -1.9991 0.9744
-5.0864 -3.4110 -1.9824 0.9746
5.7439 -2.4473 -2.0210 0.9741
4.8814 3.8775 -2.0179 0.9741
-5.8016 1.9369 -1.9798 0.9746
-4.4783 -4.1873 -1.9846 0.9746
6.0655 -1.4950 -2.0221 0.9741
4.1790 4.5913 -2.0096 0.9742
-1.6947 4.8583 -1.6655 0.9786
-6.0347 0.9808 -1.9790 0.9746
-3.7535 -4.8578 -1.9871 0.9745
2.5098 -5.6780 -2.0095 0.9742
-5.8918 0.0000 -1.9795 0.9754
3.2686 -5.0184 -2.0122 0.9750
5.9984 0.4842 -2.0219 0.9749
2.1802 4.9323 -1.8118 0.9775
-1.1562 -3.3144 -1.1794 0.9853
-4.3158 4.0354 -1.9851 0.9754
4.7014 -3.7345 -2.0173 0.9750
5.5318 2.3569 -2.0202 0.9749
0.4652 4.9352 -1.6655 0.9793
5.2446 -2.9348 -2.0192 0.9750
5.0780 3.2111 -2.0186 0.9750
-0.3219 4.7881 -1.6124 0.9800
-5.3615 2.4564 -1.9814 0.9754
-4.7201 -3.5469 -1.9837 0.9754
0.8775 -5.8987 -2.0037 0.9751
5.6515 -2.0570 -2.0207 0.9749
-4.0946 -4.2629 -1.9859 0.9754
1.8154 -5.6910 -2.0070 0.9751
-2.0375 4.9661 -1.8035 0.9776
-5.8582 0.6316 -1.9796 0.9754
2.7091 -5.3345 -2.0102 0.9751
-2.8953 4.7177 -1.8598 0.9769
-5.8833 -0.3163 -1.9796 0.9754
5.9634 0.8054 -2.0218 0.9749
-0.9736 -3.3613 -1.1758 0.9853
-5.4844 -2.1646 -1.9810 0.9754
-0.7168 -5.9033 -1.9980 0.9752
5.3960 2.6498 -2.0198 0.9750
-5.0699 3.0186 -1.9825 0.9754
-5.0699 -3.0186 -1.9825 0.9754
0.2398 -5.9520 -2.0014 0.9752
4.8968 3.4780 -2.0180 0.9750
-0.5908 4.8663 -1.6470 0.9795
-5.4844 2.1646 -1.9810 0.9754
-4.5245 -3.7965 -1.9844 0.9754
5.7548 -1.7510 -2.0210 0.9749
4.2707 4.2137 -2.0157 0.9750
-1.3688 4.7258 -1.6530 0.9795
-5.7577 1.2562 -1.9800 0.9754
3.4398 4.7078 -1.9590 0.9757
-5.8833 0.3163 -1.9796 0.9754
-3.0973 -5.0467 -1.9895 0.9753
6.0159 0.1615 -2.0220 0.9749
2.5027 4.9281 -1.8570 0.9769
-1.3428 -3.2728 -1.1886 0.9852
3.7912 -4.6434 -2.0140 0.9750
1.5704 4.9230 -1.7361 0.9784
-1.3440 -5.7860 -1.9957 0.9752
4.4925 -3.9800 -2.0165 0.9750
5.6515 2.0570 -2.0207 0.9749
0.7146 4.8035 -1.6316 0.9797
-5.3615 -2.4564 -1.9814 0.9754
-0.3991 -5.9366 -1.9991 0.9752
5.0780 -3.2111 -2.0186 0.9750
5.2446 2.9348 -2.0192 0.9750
-5.2232 2.7413 -1.9819 0.9754
-4.9020 -3.2874 -1.9831 0.9754
0.5593 -5.9339 -2.0025 0.9752
5.5318 -2.3569 -2.0202 0.9749
4.7014 3.7345 -2.0173 0.9750
-0.8442 4.7877 -1.6334 0.9797
-4.3158 -4.0354 -1.9851 0.9754
1.5065 -5.7771 -2.0059 0.9751
5.8414 -1.4398 -2.0213 0.9749
3.0740 4.7196 -1.8924 0.9765
-2.6082 4.8115 -1.8388 0.9772
5.7830 0.4669 -2.0211 0.9757
-3.4816 4.5060 -1.9837 0.9762
-1.1626 -3.3328 -1.2296 0.9852
5.6318 1.3881 -2.0206 0.9757
1.2943 4.9632 -1.7868 0.9785
-4.1635 3.8930 -1.9857 0.9761
-0.9954 -5.6454 -1.9970 0.9760
5.3333 2.2723 -2.0195 0.9757
-4.7293 3.1715 -1.9837 0.9762
-0.0771 -5.7414 -2.0003 0.9760
5.0565 -2.8296 -2.0185 0.9758
-3.9501 -4.1125 -1.9864 0.9761
3.6488 4.4690 -2.0098 0.9759
-2.0060 4.8892 -1.8410 0.9779
-5.6521 0.6094 -1.9804 0.9762
-3.2434 -4.6988 -1.9890 0.9761
-2.8881 4.7059 -1.9235 0.9769
-5.6764 -0.3051 -1.9803 0.9762
3.4085 -4.6650 -2.0127 0.9758
1.8881 4.9785 -1.8549 0.9777
5.5483 1.6881 -2.0203 0.9757
1.0239 5.0155 -1.7832 0.9786
-4.8913 -2.9122 -1.9831 0.9762
0.2313 -5.7404 -2.0014 0.9760
5.2025 -2.5548 -2.0191 0.9757
4.7213 3.3533 -2.0174 0.9758
-0.5859 4.8258 -1.6934 0.9796
-5.2913 2.0884 -1.9817 0.9762
-4.3649 -3.6626 -1.9850 0.9762
1.1510 -5.6382 -2.0046 0.9759
5.5483 -1.6882 -2.0203 0.9757
4.1179 4.0629 -2.0152 0.9758
2.0438 -5.3891 -2.0078 0.9759
5.7493 -0.7766 -2.0210 0.9757
3.3970 4.6492 -2.0059 0.9759
-2.2643 4.7721 -1.8401 0.9779
-2.9879 -4.8684 -1.9899 0.9761
2.8861 -4.9989 -2.0108 0.9758
5.7999 0.1557 -2.0212 0.9757
2.4134 4.7522 -1.8567 0.9777
-5.6521 -0.6094 -1.9804 0.9762
-3.9501 4.1125 -1.9864 0.9761
-1.2964 -5.5808 -1.9959 0.9760
0.7292 4.9011 -1.7261 0.9792
-5.1727 -2.3699 -1.9821 0.9762
4.8960 -3.0960 -2.0180 0.9758
-0.0659 4.9078 -1.7098 0.9794
-5.0392 2.6448 -1.9826 0.9762
0.5394 -5.7228 -2.0025 0.9759
4.5330 3.6007 -2.0167 0.9758
-5.3948 1.8011 -1.9813 0.9762
-4.1636 -3.8930 -1.9857 0.9761
5.6318 -1.3881 -2.0206 0.9757
-1.7138 4.9130 -1.8126 0.9782
-3.4894 -4.5160 -1.9881 0.9761
2.3313 -5.2743 -2.0088 0.9759
5.7830 -0.4669 -2.0211 0.9757
-5.4899 -0.0000 -1.9810 0.9769
2.0879 4.7237 -1.8636 0.9783
-3.3663 4.3566 -1.9866 0.9769
-5.4195 -0.8808 -1.9812 0.9769
-1.3054 -3.7421 -1.4301 0.9833
1.2936 4.9608 -1.8499 0.9784
-5.2100 -1.7394 -1.9820 0.9769
-0.9611 -5.4506 -1.9971 0.9767
5.1473 2.1930 -2.0189 0.9765
-4.5671 3.0628 -1.9842 0.9769
-0.0744 -5.5429 -2.0003 0.9767
4.8802 -2.7309 -2.0179 0.9765
-0.3327 4.9493 -1.7899 0.9791
-4.9955 2.2887 -1.9827 0.9769
-4.3975 -3.3045 -1.9849 0.9769
0.8170 -5.4918 -2.0034 0.9767
5.2586 -1.9140 -2.0193 0.9765
-5.2950 1.4570 -1.9817 0.9769
1.6900 -5.2978 -2.0066 0.9766
5.4999 -1.0461 -2.0201 0.9765
-3.1319 -4.5373 -1.9894 0.9768
2.5216 -4.9655 -2.0095 0.9766
5.5974 -0.1503 -2.0205 0.9765
2.7173 4.7065 -1.9610 0.9772
-2.8744 4.6835 -1.9829 0.9769
-5.4821 -0.2947 -1.9810 0.9769
-1.6877 -3.5567 -1.4206 0.9834
5.5486 0.7494 -2.0203 0.9765
1.8226 4.8058 -1.8546 0.9784
-5.3649 -1.1705 -1.9814 0.9769
-0.9932 -3.4290 -1.2882 0.9849
5.3547 1.6292 -2.0196 0.9765
1.0265 5.0282 -1.8518 0.9784
-4.2152 3.5369 -1.9855 0.9769
-5.1101 -2.0168 -1.9823 0.9769
0.1980 4.9116 -1.7737 0.9793
-4.7236 -2.8124 -1.9837 0.9769
0.2233 -5.5419 -2.0013 0.9767
4.5567 3.2365 -2.0168 0.9765
-0.5979 4.9246 -1.7900 0.9791
-4.2152 -3.5369 -1.9855 0.9769
1.1112 -5.4429 -2.0045 0.9767
5.3547 -1.6292 -2.0196 0.9765
-1.4211 4.9061 -1.8431 0.9785
-5.3649 1.1705 -1.9814 0.9769
-3.5972 -4.1719 -1.9877 0.9768
1.9729 -5.2021 -2.0076 0.9766
5.5486 -0.7494 -2.0203 0.9765
3.2832 4.4935 -2.0081 0.9766
-2.2369 4.7143 -1.8829 0.9781
-5.4821 0.2947 -1.9810 0.9769
-2.8851 -4.7009 -1.9902 0.9768
2.7858 -4.8252 -2.0105 0.9766
5.5974 0.1503 -2.0205 0.9765
2.3949 4.7158 -1.9085 0.9778
-5.4586 -0.5885 -1.9811 0.9769
-1.4444 -3.5204 -1.3730 0.9839
3.5284 -4.3215 -2.0131 0.9766
-3.8145 3.9713 -1.9869 0.9769
-5.2951 -1.4569 -1.9817 0.9769
-1.2516 -5.3883 -1.9961 0.9768
4.1808 -3.7038 -2.0154 0.9765
5.2586 1.9140 -2.0193 0.9765
-4.3975 3.3045 -1.9848 0.9769
-4.9955 -2.2887 -1.9827 0.9769
-0.3717 -5.5280 -1.9992 0.9767
4.7253 -2.9881 -2.0174 0.9765
4.8802 2.7309 -2.0179 0.9765
-0.0663 4.9386 -1.7822 0.9792
-4.8665 2.5542 -1.9832 0.9769
-4.5671 -3.0628 -1.9842 0.9769
0.5207 -5.5248 -2.0024 0.9767
-5.2100 1.7394 -1.9820 0.9769
1.4024 -5.3781 -2.0055 0.9766
-1.6815 4.8203 -1.8421 0.9785
-3.3695 -4.3608 -1.9885 0.9768
2.2504 -5.0912 -2.0085 0.9766
5.5811 -0.4506 -2.0204 0.9765
-2.5505 4.7049 -1.9311 0.9775
-2.3637 0.0000 -0.8826 0.9900
-1.9177 -3.5376 -1.5026 0.9830
5.3914 0.4352 -2.0197 0.9772
2.0830 4.7125 -1.9239 0.9782
-3.2566 4.2148 -1.9889 0.9775
-1.2211 -3.5004 -1.3844 0.9843
3.6295 -3.9877 -2.0135 0.9772
5.2504 1.2941 -2.0192 0.9772
1.2519 4.8007 -1.8526 0.9790
-3.8862 3.6337 -1.9867 0.9775
-0.9288 -5.2673 -1.9972 0.9774
0.4649 4.9319 -1.8498 0.9791
-4.4145 2.9604 -1.9848 0.9776
-4.7040 -2.4689 -1.9838 0.9776
-0.0719 -5.3563 -2.0003 0.9774
4.5649 2.8867 -2.0168 0.9772
-4.2505 -3.1941 -1.9854 0.9776
4.0389 3.5782 -2.0149 0.9772
-5.1183 1.4084 -1.9823 0.9776
-3.6869 -3.8384 -1.9874 0.9775
5.3129 -1.0105 -2.0195 0.9772
3.4089 4.1751 -2.0127 0.9772
-5.2765 0.5689 -1.9817 0.9776
2.4363 -4.7975 -2.0092 0.9773
-2.7816 4.5324 -1.9857 0.9775
3.1785 -4.3503 -2.0119 0.9773
1.7898 4.7193 -1.8847 0.9787
-3.4768 4.0323 -1.9881 0.9775
-5.1859 -1.1314 -1.9820 0.9776
3.8397 -3.7885 -2.0142 0.9772
5.1727 1.5739 -2.0190 0.9772
-4.0742 3.4187 -1.9860 0.9775
-4.9395 -1.9495 -1.9829 0.9776
-0.6450 -5.3123 -1.9982 0.9774
0.1994 4.9472 -1.8488 0.9791
0.2158 -5.3552 -2.0013 0.9774
4.8505 -2.3819 -2.0178 0.9772
-0.5959 4.9076 -1.8460 0.9791
1.0737 -5.2592 -2.0044 0.9773
5.1727 -1.5739 -2.0190 0.9772
-5.1859 1.1314 -1.9820 0.9776
-3.4768 -4.0323 -1.9881 0.9775
5.3599 -0.7240 -2.0196 0.9772
3.1759 4.3467 -2.0102 0.9773
-2.2316 4.7030 -1.9438 0.9780
-2.3794 0.1279 -0.8898 0.9899
2.6916 -4.6619 -2.0101 0.9773
-2.0262 -4.9386 -1.9933 0.9775
-5.1184 -1.4083 -1.9823 0.9776
-1.2096 -5.2073 -1.9962 0.9774
5.0799 1.8489 -2.0186 0.9772
-4.2505 3.1941 -1.9854 0.9776
-4.8287 -2.2123 -1.9833 0.9776
-0.3591 -5.3420 -1.9992 0.9774
4.5649 -2.8867 -2.0168 0.9772
4.7145 2.6381 -2.0173 0.9772
-0.0659 4.9075 -1.8327 0.9793
-4.4145 -2.9604 -1.9848 0.9776
4.2266 3.3573 -2.0156 0.9772
-0.8508 4.8255 -1.8297 0.9793
-5.0361 1.6813 -1.9826 0.9776
-3.8862 -3.6337 -1.9867 0.9775
5.2504 -1.2941 -2.0192 0.9772
2.9329 4.5030 -2.0067 0.9773
-2.5324 4.6717 -1.9843 0.9776
-2.2611 0.0000 -0.8730 0.9904
-1.9012 -3.5073 -1.5403 0.9830
2.8422 -4.3638 -2.0107 0.9779
5.2127 0.4208 -2.0191 0.9778
2.0780 4.7013 -1.9845 0.9782
-3.1503 4.0771 -1.9893 0.9781
-2.2774 -0.3701 -0.8908 0.9902
-1.7015 -4.8775 -1.9945 0.9781
3.5095 -3.8559 -2.0130 0.9779
5.0764 1.2512 -2.0186 0.9778
-3.7594 3.5152 -1.9871 0.9782
-4.8722 -1.6266 -1.9832 0.9782
-0.8983 -5.0946 -1.9973 0.9781
4.0868 -3.2463 -2.0151 0.9779
0.4496 4.7698 -1.8497 0.9797
-4.2707 2.8640 -1.9853 0.9782
-4.5508 -2.3884 -1.9843 0.9782
4.5584 -2.5508 -2.0168 0.9779
4.4138 2.7911 -2.0163 0.9779
-4.6714 2.1403 -1.9839 0.9782
-4.1120 -3.0899 -1.9859 0.9782
4.9116 -1.7877 -2.0180 0.9778
-2.2778 0.6268 -0.9121 0.9899
-1.9284 4.7001 -1.9615 0.9785
-2.9281 -4.2420 -1.9901 0.9781
2.3560 -4.6393 -2.0089 0.9779
5.2279 -0.1404 -2.0192 0.9778
-2.2753 -0.1223 -0.8797 0.9903
-1.6983 -3.5790 -1.5295 0.9832
3.0736 -4.2066 -2.0115 0.9779
1.7856 4.7083 -1.9442 0.9786
-3.3633 3.9007 -1.9885 0.9782
-2.2666 -0.4945 -0.8957 0.9901
3.7128 -3.6633 -2.0138 0.9779
5.0013 1.5217 -2.0183 0.9778
0.9641 4.7226 -1.8610 0.9795
-3.9414 3.3072 -1.9865 0.9782
4.2564 -3.0232 -2.0157 0.9779
4.6898 2.3030 -2.0172 0.9778
-4.4171 2.6299 -1.9848 0.9782
-4.4171 -2.6299 -1.9848 0.9782
4.6898 -2.3030 -2.0172 0.9778
4.2564 3.0231 -2.0157 0.9779
-4.7786 1.8861 -1.9835 0.9782
-3.9414 -3.3072 -1.9865 0.9782
1.0383 -5.0862 -2.0042 0.9780
5.0013 -1.5217 -2.0184 0.9778
3.7128 3.6632 -2.0138 0.9779
-2.2666 0.4945 -0.8957 0.9901
5.1823 -0.7000 -2.0190 0.9778
3.0736 4.2066 -2.0115 0.9779
-2.6973 -4.3949 -1.9909 0.9781
2.3485 4.6245 -2.0025 0.9780
-2.9281 4.2420 -1.9901 0.9781
-2.2786 -0.2457 -0.8849 0.9902
5.1368 0.9770 -2.0188 0.9778
-2.2778 -0.6267 -0.9121 0.9899
4.9116 1.7877 -2.0180 0.9778
0.7053 4.7411 -1.8506 0.9797
-4.6714 -2.1402 -1.9839 0.9782
-0.3474 -5.1666 -1.9993 0.9780
4.5584 2.5508 -2.0168 0.9779
-0.0642 4.7857 -1.8479 0.9797
4.8077 -2.0484 -2.0177 0.9778
-0.8328 4.7229 -1.8516 0.9796
5.0764 -1.2512 -2.0186 0.9778
-2.2774 0.3701 -0.8908 0.9902
-3.1503 -4.0771 -1.9893 0.9781
2.1026 -4.7569 -2.0080 0.9779
5.2127 -0.4208 -2.0191 0.9778
-2.4527 4.5246 -1.9871 0.9782
2.7506 -4.2232 -2.0103 0.9785
-1.6471 -4.7216 -1.9947 0.9787
3.3963 -3.7315 -2.0126 0.9785
-3.6396 3.4032 -1.9876 0.9788
4.6523 1.9821 -2.0171 0.9785
0.4446 4.7166 -1.8897 0.9798
-4.1348 2.7728 -1.9858 0.9788
-4.4060 -2.3125 -1.9848 0.9788
-0.0673 -5.0143 -2.0003 0.9786
4.4111 -2.4684 -2.0162 0.9785
-0.3171 4.7164 -1.8855 0.9798
-3.9811 -2.9916 -1.9863 0.9788
3.7793 3.3482 -2.0140 0.9785
-2.1643 0.5955 -0.8954 0.9904
-3.4529 -3.5948 -1.9882 0.9788
-2.8347 -4.1067 -1.9904 0.9787
5.0587 -0.1359 -2.0186 0.9784
2.5166 4.3589 -2.0076 0.9786
-2.6110 4.2543 -1.9911 0.9787
-2.1791 -0.1171 -0.8705 0.9906
-1.6780 -3.5363 -1.5613 0.9833
2.9745 -4.0711 -2.0111 0.9785
5.0146 0.6773 -2.0184 0.9784
1.7775 4.6869 -1.9994 0.9786
-3.2561 3.7763 -1.9889 0.9788
-1.0312 -3.5602 -1.4785 0.9842
4.8396 1.4725 -2.0178 0.9785
0.9620 4.7120 -1.9183 0.9795
-4.6267 -1.8261 -1.9840 0.9788
-0.6039 -4.9734 -1.9984 0.9787
4.1189 -2.9255 -2.0152 0.9785
4.5383 2.2286 -2.0167 0.9785
-4.2765 2.5462 -1.9853 0.9788
-4.2765 -2.5462 -1.9853 0.9788
4.5383 -2.2286 -2.0167 0.9785
-0.5724 4.7144 -1.8943 0.9798
-4.6267 1.8261 -1.9840 0.9788
-3.8159 -3.2019 -1.9869 0.9788
1.0050 -4.9228 -2.0041 0.9786
5.0146 -0.6773 -2.0184 0.9784
2.9745 4.0710 -2.0111 0.9785
-2.1791 0.1171 -0.8705 0.9906
2.5189 -4.3629 -2.0095 0.9785
5.0587 0.1358 -2.0186 0.9784
-2.8347 4.1067 -1.9904 0.9787
-2.1789 -0.2349 -0.8742 0.9906
1.5003 4.7033 -1.9692 0.9790
-3.4529 3.5948 -1.9882 0.9788
-2.1643 -0.5955 -0.8954 0.9904
-1.1325 -4.8754 -1.9965 0.9787
3.7793 -3.3482 -2.0140 0.9785
4.7528 1.7299 -2.0175 0.9785
-3.9810 2.9916 -1.9863 0.9788
4.4111 2.4684 -2.0162 0.9785
0.4710 -4.9974 -2.0022 0.9786
4.6523 -1.9822 -2.0171 0.9785
-3.6397 -3.4032 -1.9876 0.9788
4.9122 -1.2108 -2.0180 0.9784
-1.6382 4.6964 -1.9840 0.9788
-2.1772 0.3538 -0.8798 0.9905
-3.0498 -3.9471 -1.9897 0.9787
2.0350 -4.6039 -2.0078 0.9786
-2.0782 0.0000 -0.8558 0.9911
-1.9012 -3.5072 -1.6428 0.9829
2.6640 -4.0902 -2.0100 0.9791
4.8846 0.3943 -2.0179 0.9790
1.9676 4.4514 -2.0041 0.9792
-2.9548 3.8241 -1.9900 0.9793
-2.0845 -0.3388 -0.8696 0.9909
3.2893 -3.6139 -2.0123 0.9791
4.7570 1.1725 -2.0175 0.9790
3.8301 -3.0424 -2.0142 0.9791
4.5053 1.9195 -2.0166 0.9790
0.4436 4.7061 -1.9465 0.9798
-4.0061 2.6865 -1.9862 0.9794
-0.3164 4.7059 -1.9422 0.9798
-4.3822 2.0078 -1.9849 0.9794
-3.8572 -2.8985 -1.9868 0.9793
0.7158 -4.8115 -2.0031 0.9792
4.6027 -1.6752 -2.0169 0.9790
3.6601 3.2426 -2.0136 0.9791
-1.0910 4.6968 -1.9855 0.9794
-2.0637 0.5678 -0.8814 0.9908
-3.3454 -3.4829 -1.9886 0.9793
1.4803 -4.6406 -2.0058 0.9791
4.8136 -0.9156 -2.0177 0.9790
3.0895 3.7839 -2.0115 0.9791
-2.0868 0.2250 -0.8643 0.9910
2.2084 -4.3487 -2.0084 0.9791
-1.6934 -3.5688 -1.6266 0.9831
1.7237 4.5450 -2.0016 0.9792
-3.1546 3.6587 -1.9893 0.9793
-1.0128 -3.4965 -1.4990 0.9844
0.9598 4.7014 -1.9759 0.9795
-3.6971 3.1022 -1.9873 0.9793
-0.5850 -4.8178 -1.9984 0.9792
-4.1435 -2.4670 -1.9858 0.9794
0.1957 -4.8560 -2.0012 0.9792
4.3949 -2.1582 -2.0162 0.9790
-3.6971 -3.1022 -1.9873 0.9793
4.6867 -1.4260 -2.0172 0.9790
3.4797 3.4333 -2.0129 0.9791
-2.0690 0.4514 -0.8720 0.9909
-3.1547 -3.6587 -1.9893 0.9793
4.8562 -0.6559 -2.0178 0.9790
-2.0728 4.3684 -1.9911 0.9793
2.4397 -4.2256 -2.0092 0.9791
-2.0868 -0.2250 -0.8643 0.9910
-1.8380 -4.4799 -1.9940 0.9793
-3.3454 3.4829 -1.9886 0.9793
-2.0637 -0.5678 -0.8814 0.9908
-1.0971 -4.7230 -1.9966 0.9792
-0.3257 -4.8445 -1.9994 0.9792
4.1364 -2.6157 -2.0153 0.9791
4.2719 2.3904 -2.0157 0.9790
-0.0632 4.7069 -1.9384 0.9798
-4.2690 2.2406 -1.9853 0.9794
-4.0061 -2.6865 -1.9862 0.9794
0.4562 -4.8407 -2.0022 0.9792
4.5053 -1.9196 -2.0166 0.9790
-2.1189 0.7074 -0.9199 0.9904
-3.5263 -3.2972 -1.9880 0.9793
3.2893 3.6139 -2.0122 0.9791
-1.5913 4.5619 -1.9895 0.9793
-2.9548 -3.8241 -1.9900 0.9793
1.9710 -4.4591 -2.0076 0.9791
2.6640 4.0902 -2.0100 0.9791
-1.9138 -3.5304 -1.7059 0.9827
2.5820 -3.9643 -2.0097 0.9796
1.9092 4.3194 -2.0061 0.9797
-1.5469 -4.4343 -1.9950 0.9798
3.1879 -3.5025 -2.0119 0.9796
4.6100 1.1363 -2.0170 0.9796
-3.4189 3.1968 -1.9883 0.9799
-1.9962 -0.6664 -0.8940 0.9909
3.7119 -2.9485 -2.0138 0.9796
4.3662 1.8602 -2.0161 0.9796
0.4407 4.6752 -1.9948 0.9798
-3.8842 2.6048 -1.9867 0.9799
-4.1391 -2.1724 -1.9858 0.9799
-0.0632 -4.7084 -2.0003 0.9797
-0.3146 4.6789 -1.9921 0.9798
-3.7397 -2.8102 -1.9872 0.9799
0.6938 -4.6638 -2.0030 0.9797
-1.0606 4.5661 -1.9913 0.9798
-3.2434 -3.3767 -1.9890 0.9799
1.4348 -4.4980 -2.0056 0.9797
4.6648 -0.8873 -2.0172 0.9796
2.9943 3.6673 -2.0112 0.9796
-2.6625 -3.8573 -1.9910 0.9798
4.7474 -0.1275 -2.0174 0.9796
2.3646 4.0956 -2.0090 0.9797
-2.4525 3.9962 -1.9918 0.9798
-2.0045 -0.1077 -0.8528 0.9913
2.7921 -3.8214 -2.0105 0.9796
4.7061 0.6356 -2.0173 0.9796
-3.0585 3.5472 -1.9896 0.9799
-1.9823 -0.4325 -0.8619 0.9912
-1.0280 -3.5492 -1.5697 0.9841
3.3724 -3.3274 -2.0125 0.9796
-4.3465 -1.7155 -1.9850 0.9799
-0.5671 -4.6703 -1.9985 0.9798
3.8659 -2.7458 -2.0143 0.9796
4.2592 2.0915 -2.0157 0.9796
-4.0174 2.3920 -1.9862 0.9799
4.2592 -2.0915 -2.0157 0.9796
-0.5651 4.6541 -1.9916 0.9798
-4.3465 1.7155 -1.9850 0.9799
-3.5845 -3.0078 -1.9878 0.9799
-1.3043 4.5030 -1.9915 0.9798
1.6749 -4.4164 -2.0065 0.9797
2.7921 3.8214 -2.0105 0.9796
-2.0116 4.2394 -1.9934 0.9798
2.3646 -4.0956 -2.0090 0.9797
4.7474 0.1275 -2.0174 0.9796
-2.0014 -0.2158 -0.8551 0.9913
-1.4341 -3.4955 -1.6050 0.9837
4.6648 0.8872 -2.0172 0.9796
1.4319 4.4889 -2.0015 0.9797
3.5472 -3.1426 -2.0132 0.9796
4.4605 1.6235 -2.0164 0.9796
-3.7397 2.8103 -1.9872 0.9799
-4.2490 -1.9467 -1.9854 0.9799
4.0087 -2.5349 -2.0148 0.9796
0.4422 -4.6922 -2.0021 0.9797
4.3662 -1.8603 -2.0161 0.9796
-3.4189 -3.1968 -1.9883 0.9799
4.6100 -1.1363 -2.0170 0.9796
-1.5444 4.4275 -1.9919 0.9798
-1.9982 0.3247 -0.8600 0.9912
-2.8647 -3.7075 -1.9903 0.9798
1.9104 -4.3220 -2.0073 0.9797
2.5820 3.9643 -2.0097 0.9796
-2.2354 4.1237 -1.9926 0.9798
-1.9201 0.0000 -0.8409 0.9917
4.5904 0.3706 -2.0169 0.9801
-2.7791 3.5968 -1.9906 0.9803
-1.5005 -4.3016 -1.9952 0.9803
3.0917 -3.3968 -2.0115 0.9801
1.1533 4.4227 -2.0017 0.9802
-1.8865 -0.6298 -0.8710 0.9914
-0.7921 -4.4922 -1.9977 0.9803
4.2342 1.8040 -2.0156 0.9801
0.4279 4.5400 -1.9971 0.9803
-3.7684 2.5271 -1.9871 0.9804
4.0148 -2.2466 -2.0148 0.9801
-3.6282 -2.7264 -1.9876 0.9804
